   344000.0   4981600.0      253.30806
   344100.0   4981600.0      255.32921
   344200.0   4981600.0      257.25839
   344300.0   4981600.0      259.30533
   344400.0   4981600.0      261.59714
   344500.0   4981600.0      264.01376
   344600.0   4981600.0      266.39383
   344700.0   4981600.0      268.62042
   344800.0   4981600.0      270.70126
   344900.0   4981600.0      272.69861
   345000.0   4981600.0      274.61148
   345100.0   4981600.0      276.45599
   345200.0   4981600.0      278.26065
   345300.0   4981600.0      280.03079
   345400.0   4981600.0      281.69534
   345500.0   4981600.0      283.06561
   345600.0   4981600.0      283.78583
   345700.0   4981600.0      283.52777
   345800.0   4981600.0      282.78714
   345900.0   4981600.0      282.69229
   346000.0   4981600.0      283.71616
   346100.0   4981600.0      285.50122
   346200.0   4981600.0      287.62726
   346300.0   4981600.0      289.89914
   346400.0   4981600.0      292.17883
   346500.0   4981600.0      294.32162
   346600.0   4981600.0      296.29129
   346700.0   4981600.0      298.00333
   346800.0   4981600.0      298.88660
   346900.0   4981600.0      298.01984
   347000.0   4981600.0      295.15817
   347100.0   4981600.0      291.07135
   347200.0   4981600.0      286.61093
   347300.0   4981600.0      282.24686
   347400.0   4981600.0      278.57175
   347500.0   4981600.0      276.36774
   347600.0   4981600.0      275.78143
   347700.0   4981600.0      276.22150
   347800.0   4981600.0      276.99060
   347900.0   4981600.0      277.43906
   348000.0   4981600.0      276.91266
   348100.0   4981600.0      275.05118
   348200.0   4981600.0      272.59317
   348300.0   4981600.0      271.17081
   343000.0   4981500.0      242.16518
   343100.0   4981500.0      242.97888
   343200.0   4981500.0      243.71446
   343300.0   4981500.0      244.28804
   343400.0   4981500.0      244.78522
   343500.0   4981500.0      245.41815
   343600.0   4981500.0      246.20024
   343700.0   4981500.0      247.16626
   343800.0   4981500.0      248.39629
   343900.0   4981500.0      249.88498
   344000.0   4981500.0      251.66154
   344100.0   4981500.0      253.57997
   344200.0   4981500.0      255.39062
   344300.0   4981500.0      257.13416
   344400.0   4981500.0      258.94904
   344500.0   4981500.0      260.83914
   344600.0   4981500.0      262.77533
   344700.0   4981500.0      264.70428
   344800.0   4981500.0      266.60611
   344900.0   4981500.0      268.49854
   345000.0   4981500.0      270.34702
   345100.0   4981500.0      272.14124
   345200.0   4981500.0      273.90759
   345300.0   4981500.0      275.65848
   345400.0   4981500.0      277.34827
   345500.0   4981500.0      278.82281
   345600.0   4981500.0      279.79898
   345700.0   4981500.0      279.97766
   345800.0   4981500.0      279.63867
   345900.0   4981500.0      279.68930
   346000.0   4981500.0      280.63550
   346100.0   4981500.0      282.28763
   346200.0   4981500.0      284.36386
   346300.0   4981500.0      286.70844
   346400.0   4981500.0      289.18625
   346500.0   4981500.0      291.63565
   346600.0   4981500.0      293.86716
   346700.0   4981500.0      295.65948
   346800.0   4981500.0      296.57254
   346900.0   4981500.0      295.78741
   347000.0   4981500.0      292.89340
   347100.0   4981500.0      288.60498
   347200.0   4981500.0      283.95175
   347300.0   4981500.0      279.44769
   347400.0   4981500.0      275.55981
   347500.0   4981500.0      273.05884
   347600.0   4981500.0      272.21472
   347700.0   4981500.0      272.53244
   347800.0   4981500.0      273.32462
   347900.0   4981500.0      273.95828
   348000.0   4981500.0      273.83090
   348100.0   4981500.0      272.54501
   348200.0   4981500.0      270.71576
   348300.0   4981500.0      269.82889
   343000.0   4981400.0      242.87871
   343100.0   4981400.0      243.43286
   343200.0   4981400.0      243.73004
   343300.0   4981400.0      243.97636
   343400.0   4981400.0      244.36806
   343500.0   4981400.0      244.96866
   343600.0   4981400.0      245.63016
   343700.0   4981400.0      246.36786
   343800.0   4981400.0      247.33879
   343900.0   4981400.0      248.62700
   344000.0   4981400.0      250.26877
   344100.0   4981400.0      252.10846
   344200.0   4981400.0      253.74561
   344300.0   4981400.0      254.97772
   344400.0   4981400.0      256.10614
   344500.0   4981400.0      257.45801
   344600.0   4981400.0      259.05618
   344700.0   4981400.0      260.79477
   344800.0   4981400.0      262.57434
   344900.0   4981400.0      264.37311
   345000.0   4981400.0      266.16495
   345100.0   4981400.0      267.91403
   345200.0   4981400.0      269.63962
   345300.0   4981400.0      271.35281
   345400.0   4981400.0      273.03592
   345500.0   4981400.0      274.57465
   345600.0   4981400.0      275.75171
   345700.0   4981400.0      276.25403
   345800.0   4981400.0      276.14240
   345900.0   4981400.0      276.23822
   346000.0   4981400.0      277.18826
   346100.0   4981400.0      278.92218
   346200.0   4981400.0      281.15851
   346300.0   4981400.0      283.67145
   346400.0   4981400.0      286.25555
   346500.0   4981400.0      288.70435
   346600.0   4981400.0      290.82288
   346700.0   4981400.0      292.43869
   346800.0   4981400.0      293.28619
   346900.0   4981400.0      292.68011
   347000.0   4981400.0      290.04794
   347100.0   4981400.0      285.86301
   347200.0   4981400.0      281.16547
   347300.0   4981400.0      276.58923
   347400.0   4981400.0      272.56769
   347500.0   4981400.0      269.83328
   347600.0   4981400.0      268.77875
   347700.0   4981400.0      269.01389
   347800.0   4981400.0      269.86380
   347900.0   4981400.0      270.70483
   348000.0   4981400.0      270.99133
   348100.0   4981400.0      270.41214
   348200.0   4981400.0      269.38718
   348300.0   4981400.0      269.13297
   343000.0   4981300.0      244.73904
   343100.0   4981300.0      245.13271
   343200.0   4981300.0      244.94525
   343300.0   4981300.0      244.59814
   343400.0   4981300.0      244.41635
   343500.0   4981300.0      244.62239
   343600.0   4981300.0      245.14406
   343700.0   4981300.0      245.82712
   343800.0   4981300.0      246.76709
   343900.0   4981300.0      248.08307
   344000.0   4981300.0      249.66302
   344100.0   4981300.0      251.16731
   344200.0   4981300.0      252.16859
   344300.0   4981300.0      252.66656
   344400.0   4981300.0      253.22197
   344500.0   4981300.0      254.21877
   344600.0   4981300.0      255.58206
   344700.0   4981300.0      257.14645
   344800.0   4981300.0      258.79117
   344900.0   4981300.0      260.48569
   345000.0   4981300.0      262.21716
   345100.0   4981300.0      263.92072
   345200.0   4981300.0      265.58624
   345300.0   4981300.0      267.22610
   345400.0   4981300.0      268.84854
   345500.0   4981300.0      270.38272
   345600.0   4981300.0      271.67529
   345700.0   4981300.0      272.42099
   345800.0   4981300.0      272.52258
   345900.0   4981300.0      272.73068
   346000.0   4981300.0      273.80640
   346100.0   4981300.0      275.72101
   346200.0   4981300.0      278.11447
   346300.0   4981300.0      280.65869
   346400.0   4981300.0      283.10391
   346500.0   4981300.0      285.30292
   346600.0   4981300.0      287.17950
   346700.0   4981300.0      288.66449
   346800.0   4981300.0      289.55011
   346900.0   4981300.0      289.18872
   347000.0   4981300.0      286.91183
   347100.0   4981300.0      282.97150
   347200.0   4981300.0      278.33923
   347300.0   4981300.0      273.76688
   347400.0   4981300.0      269.73090
   347500.0   4981300.0      266.90433
   347600.0   4981300.0      265.75961
   347700.0   4981300.0      266.02182
   347800.0   4981300.0      267.01529
   347900.0   4981300.0      268.10501
   348000.0   4981300.0      268.79105
   348100.0   4981300.0      268.88651
   348200.0   4981300.0      268.76004
   348300.0   4981300.0      269.27972
   343000.0   4981200.0      246.93529
   343100.0   4981200.0      247.37039
   343200.0   4981200.0      246.82945
   343300.0   4981200.0      245.79279
   343400.0   4981200.0      244.79530
   343500.0   4981200.0      244.40086
   343600.0   4981200.0      244.75302
   343700.0   4981200.0      245.61171
   343800.0   4981200.0      246.82925
   343900.0   4981200.0      248.32050
   344000.0   4981200.0      249.74272
   344100.0   4981200.0      250.56271
   344200.0   4981200.0      250.66737
   344300.0   4981200.0      250.55862
   344400.0   4981200.0      250.80338
   344500.0   4981200.0      251.60852
   344600.0   4981200.0      252.80063
   344700.0   4981200.0      254.14917
   344800.0   4981200.0      255.57994
   344900.0   4981200.0      257.13058
   345000.0   4981200.0      258.80078
   345100.0   4981200.0      260.47195
   345200.0   4981200.0      262.04715
   345300.0   4981200.0      263.50815
   345400.0   4981200.0      264.92307
   345500.0   4981200.0      266.31992
   345600.0   4981200.0      267.61639
   345700.0   4981200.0      268.54742
   345800.0   4981200.0      268.94595
   345900.0   4981200.0      269.40659
   346000.0   4981200.0      270.65714
   346100.0   4981200.0      272.66431
   346200.0   4981200.0      275.00064
   346300.0   4981200.0      277.33255
   346400.0   4981200.0      279.48965
   346500.0   4981200.0      281.43439
   346600.0   4981200.0      283.15988
   346700.0   4981200.0      284.60724
   346800.0   4981200.0      285.57260
   346900.0   4981200.0      285.48367
   347000.0   4981200.0      283.62930
   347100.0   4981200.0      280.01788
   347200.0   4981200.0      275.52826
   347300.0   4981200.0      271.05829
   347400.0   4981200.0      267.16403
   347500.0   4981200.0      264.47528
   347600.0   4981200.0      263.51907
   347700.0   4981200.0      264.05667
   347800.0   4981200.0      265.31943
   347900.0   4981200.0      266.65710
   348000.0   4981200.0      267.58649
   348100.0   4981200.0      267.99463
   348200.0   4981200.0      268.42941
   348300.0   4981200.0      269.37677
   348400.0   4981200.0      270.32477
   343100.0   4981100.0      249.40715
   343200.0   4981100.0      248.64516
   343300.0   4981100.0      247.07910
   343400.0   4981100.0      245.50067
   343500.0   4981100.0      244.59320
   343600.0   4981100.0      244.74205
   343700.0   4981100.0      245.81923
   343800.0   4981100.0      247.37793
   343900.0   4981100.0      248.91600
   344000.0   4981100.0      249.89911
   344100.0   4981100.0      250.00792
   344200.0   4981100.0      249.58841
   344300.0   4981100.0      249.27783
   344400.0   4981100.0      249.44304
   344500.0   4981100.0      250.17206
   344600.0   4981100.0      251.21454
   344700.0   4981100.0      252.28668
   344800.0   4981100.0      253.44077
   344900.0   4981100.0      254.81238
   345000.0   4981100.0      256.41437
   345100.0   4981100.0      258.05148
   345200.0   4981100.0      259.43024
   345300.0   4981100.0      260.48355
   345400.0   4981100.0      261.41925
   345500.0   4981100.0      262.46991
   345600.0   4981100.0      263.64999
   345700.0   4981100.0      264.70959
   345800.0   4981100.0      265.44568
   345900.0   4981100.0      266.22189
   346000.0   4981100.0      267.57260
   346100.0   4981100.0      269.45493
   346200.0   4981100.0      271.51810
   346300.0   4981100.0      273.55719
   346400.0   4981100.0      275.49524
   346500.0   4981100.0      277.30524
   346600.0   4981100.0      278.96646
   346700.0   4981100.0      280.41260
   346800.0   4981100.0      281.47092
   346900.0   4981100.0      281.67484
   347000.0   4981100.0      280.28162
   347100.0   4981100.0      277.05853
   347200.0   4981100.0      272.78833
   347300.0   4981100.0      268.53320
   347400.0   4981100.0      264.98642
   347500.0   4981100.0      262.76248
   347600.0   4981100.0      262.33658
   347700.0   4981100.0      263.35452
   347800.0   4981100.0      264.87881
   347900.0   4981100.0      266.23007
   348000.0   4981100.0      267.00345
   348100.0   4981100.0      267.24805
   348200.0   4981100.0      267.58057
   348300.0   4981100.0      267.90216
   348400.0   4981100.0      267.53427
   343100.0   4981000.0      250.62531
   343200.0   4981000.0      249.95674
   343300.0   4981000.0      248.36288
   343400.0   4981000.0      246.63686
   343500.0   4981000.0      245.44106
   343600.0   4981000.0      245.30196
   343700.0   4981000.0      246.33028
   343800.0   4981000.0      247.91280
   343900.0   4981000.0      249.13496
   344000.0   4981000.0      249.62442
   344100.0   4981000.0      249.57529
   344200.0   4981000.0      249.32236
   344300.0   4981000.0      249.19948
   344400.0   4981000.0      249.45479
   344500.0   4981000.0      250.11649
   344600.0   4981000.0      250.95222
   344700.0   4981000.0      251.77721
   344800.0   4981000.0      252.66396
   344900.0   4981000.0      253.74309
   345000.0   4981000.0      255.12651
   345100.0   4981000.0      256.60788
   345200.0   4981000.0      257.66498
   345300.0   4981000.0      258.13834
   345400.0   4981000.0      258.39203
   345500.0   4981000.0      258.91733
   345600.0   4981000.0      259.85873
   345700.0   4981000.0      260.96414
   345800.0   4981000.0      261.95956
   345900.0   4981000.0      262.94913
   346000.0   4981000.0      264.25992
   346100.0   4981000.0      265.89423
   346200.0   4981000.0      267.67288
   346300.0   4981000.0      269.50980
   346400.0   4981000.0      271.33234
   346500.0   4981000.0      273.07452
   346600.0   4981000.0      274.70212
   346700.0   4981000.0      276.16132
   346800.0   4981000.0      277.31686
   346900.0   4981000.0      277.80627
   347000.0   4981000.0      276.88495
   347100.0   4981000.0      274.12204
   347200.0   4981000.0      270.19354
   347300.0   4981000.0      266.29413
   347400.0   4981000.0      263.31305
   347500.0   4981000.0      261.85526
   347600.0   4981000.0      262.13525
   347700.0   4981000.0      263.52487
   347800.0   4981000.0      264.96295
   347900.0   4981000.0      265.83652
   348000.0   4981000.0      266.07581
   348100.0   4981000.0      266.00232
   348200.0   4981000.0      265.88620
   348300.0   4981000.0      264.88464
   348400.0   4981000.0      262.83359
   343100.0   4980900.0      251.46220
   343200.0   4980900.0      251.14977
   343300.0   4980900.0      249.83604
   343400.0   4980900.0      248.08728
   343500.0   4980900.0      246.58745
   343600.0   4980900.0      245.94450
   343700.0   4980900.0      246.48906
   343800.0   4980900.0      247.64418
   343900.0   4980900.0      248.50514
   344000.0   4980900.0      249.05316
   344100.0   4980900.0      249.58693
   344200.0   4980900.0      249.99742
   344300.0   4980900.0      250.26302
   344400.0   4980900.0      250.62399
   344500.0   4980900.0      251.16565
   344600.0   4980900.0      251.75386
   344700.0   4980900.0      252.32828
   344800.0   4980900.0      252.87277
   344900.0   4980900.0      253.43680
   345000.0   4980900.0      254.27452
   345100.0   4980900.0      255.32219
   345200.0   4980900.0      256.01846
   345300.0   4980900.0      256.03201
   345400.0   4980900.0      255.70044
   345500.0   4980900.0      255.70470
   345600.0   4980900.0      256.34717
   345700.0   4980900.0      257.40698
   345800.0   4980900.0      258.51163
   345900.0   4980900.0      259.53827
   346000.0   4980900.0      260.71802
   346100.0   4980900.0      262.14847
   346200.0   4980900.0      263.73572
   346300.0   4980900.0      265.43143
   346400.0   4980900.0      267.16083
   346500.0   4980900.0      268.84164
   346600.0   4980900.0      270.44128
   346700.0   4980900.0      271.91736
   346800.0   4980900.0      273.16385
   346900.0   4980900.0      273.90051
   347000.0   4980900.0      273.43652
   347100.0   4980900.0      271.23740
   347200.0   4980900.0      267.85193
   347300.0   4980900.0      264.51413
   347400.0   4980900.0      262.26605
   347500.0   4980900.0      261.63297
   347600.0   4980900.0      262.45294
   347700.0   4980900.0      263.80319
   347800.0   4980900.0      264.62872
   347900.0   4980900.0      264.71176
   348000.0   4980900.0      264.48087
   348100.0   4980900.0      264.30289
   348200.0   4980900.0      264.02496
   348300.0   4980900.0      262.32697
   348400.0   4980900.0      259.42807
   343100.0   4980800.0      252.81450
   343200.0   4980800.0      252.65016
   343300.0   4980800.0      251.36261
   343400.0   4980800.0      249.38643
   343500.0   4980800.0      247.36163
   343600.0   4980800.0      246.05342
   343700.0   4980800.0      245.88361
   343800.0   4980800.0      246.50998
   343900.0   4980800.0      247.41612
   344000.0   4980800.0      248.61259
   344100.0   4980800.0      250.11467
   344200.0   4980800.0      251.35129
   344300.0   4980800.0      251.96843
   344400.0   4980800.0      252.36485
   344500.0   4980800.0      252.80679
   344600.0   4980800.0      253.15665
   344700.0   4980800.0      253.34702
   344800.0   4980800.0      253.38783
   344900.0   4980800.0      253.34216
   345000.0   4980800.0      253.45045
   345100.0   4980800.0      253.84804
   345200.0   4980800.0      254.18060
   345300.0   4980800.0      253.96898
   345400.0   4980800.0      253.32541
   345500.0   4980800.0      252.96228
   345600.0   4980800.0      253.34578
   345700.0   4980800.0      254.30173
   345800.0   4980800.0      255.37593
   345900.0   4980800.0      256.32516
   346000.0   4980800.0      257.34561
   346100.0   4980800.0      258.59152
   346200.0   4980800.0      259.99536
   346300.0   4980800.0      261.52002
   346400.0   4980800.0      263.11685
   346500.0   4980800.0      264.71014
   346600.0   4980800.0      266.26233
   346700.0   4980800.0      267.74271
   346800.0   4980800.0      269.07224
   346900.0   4980800.0      270.02496
   347000.0   4980800.0      270.01367
   347100.0   4980800.0      268.49442
   347200.0   4980800.0      265.85962
   347300.0   4980800.0      263.27420
   347400.0   4980800.0      261.74548
   347500.0   4980800.0      261.65875
   347600.0   4980800.0      262.62405
   347700.0   4980800.0      263.50244
   347800.0   4980800.0      263.48267
   347900.0   4980800.0      262.97089
   348000.0   4980800.0      262.66840
   348100.0   4980800.0      262.81973
   348200.0   4980800.0      263.06076
   348300.0   4980800.0      262.06317
   348400.0   4980800.0      259.83774
   343100.0   4980700.0      253.80208
   343200.0   4980700.0      253.66846
   343300.0   4980700.0      252.21559
   343400.0   4980700.0      249.98340
   343500.0   4980700.0      247.62802
   343600.0   4980700.0      245.91013
   343700.0   4980700.0      245.21112
   343800.0   4980700.0      245.49217
   343900.0   4980700.0      246.61916
   344000.0   4980700.0      248.51204
   344100.0   4980700.0      250.81952
   344200.0   4980700.0      252.64824
   344300.0   4980700.0      253.52542
   344400.0   4980700.0      253.94809
   344500.0   4980700.0      254.25397
   344600.0   4980700.0      254.33501
   344700.0   4980700.0      254.10068
   344800.0   4980700.0      253.60043
   344900.0   4980700.0      253.02747
   345000.0   4980700.0      252.60297
   345100.0   4980700.0      252.54971
   345200.0   4980700.0      252.66797
   345300.0   4980700.0      252.35527
   345400.0   4980700.0      251.57895
   345500.0   4980700.0      251.05986
   345600.0   4980700.0      251.30536
   345700.0   4980700.0      252.14857
   345800.0   4980700.0      253.12245
   345900.0   4980700.0      253.95013
   346000.0   4980700.0      254.76244
   346100.0   4980700.0      255.72266
   346200.0   4980700.0      256.81418
   346300.0   4980700.0      258.03693
   346400.0   4980700.0      259.39206
   346500.0   4980700.0      260.82092
   346600.0   4980700.0      262.27325
   346700.0   4980700.0      263.71725
   346800.0   4980700.0      265.11151
   346900.0   4980700.0      266.30655
   347000.0   4980700.0      266.77759
   347100.0   4980700.0      265.97311
   347200.0   4980700.0      264.15067
   347300.0   4980700.0      262.24380
   347400.0   4980700.0      261.09109
   347500.0   4980700.0      261.08365
   347600.0   4980700.0      261.82211
   347700.0   4980700.0      262.16797
   347800.0   4980700.0      261.65216
   347900.0   4980700.0      261.03275
   348000.0   4980700.0      261.09201
   348100.0   4980700.0      262.01703
   348200.0   4980700.0      263.34412
   348300.0   4980700.0      263.92441
   348400.0   4980700.0      263.20746
   343200.0   4980600.0      252.92590
   343300.0   4980600.0      251.74847
   343400.0   4980600.0      249.83354
   343500.0   4980600.0      247.86746
   343600.0   4980600.0      246.31314
   343700.0   4980600.0      245.40604
   343800.0   4980600.0      245.37451
   343900.0   4980600.0      246.45967
   344000.0   4980600.0      248.58287
   344100.0   4980600.0      251.07591
   344200.0   4980600.0      253.08624
   344300.0   4980600.0      254.27112
   344400.0   4980600.0      254.73531
   344500.0   4980600.0      254.70741
   344600.0   4980600.0      254.41397
   344700.0   4980600.0      253.84912
   344800.0   4980600.0      253.01338
   344900.0   4980600.0      252.19400
   345000.0   4980600.0      251.66962
   345100.0   4980600.0      251.58063
   345200.0   4980600.0      251.68152
   345300.0   4980600.0      251.39740
   345400.0   4980600.0      250.74779
   345500.0   4980600.0      250.39404
   345600.0   4980600.0      250.70535
   345700.0   4980600.0      251.49585
   345800.0   4980600.0      252.37773
   345900.0   4980600.0      253.10014
   346000.0   4980600.0      253.68761
   346100.0   4980600.0      254.22893
   346200.0   4980600.0      254.77106
   346300.0   4980600.0      255.43561
   346400.0   4980600.0      256.32251
   346500.0   4980600.0      257.40930
   346600.0   4980600.0      258.64166
   346700.0   4980600.0      259.97598
   346800.0   4980600.0      261.37534
   346900.0   4980600.0      262.76462
   347000.0   4980600.0      263.66037
   347100.0   4980600.0      263.49988
   347200.0   4980600.0      262.38678
   347300.0   4980600.0      260.84067
   347400.0   4980600.0      259.59930
   347500.0   4980600.0      259.29214
   347600.0   4980600.0      259.67538
   347700.0   4980600.0      259.83368
   347800.0   4980600.0      259.43057
   347900.0   4980600.0      259.20718
   348000.0   4980600.0      260.00708
   348100.0   4980600.0      261.93234
   348200.0   4980600.0      264.37973
   348300.0   4980600.0      266.34384
   348400.0   4980600.0      266.83514
   343200.0   4980500.0      250.42062
   343300.0   4980500.0      250.29887
   343400.0   4980500.0      249.49768
   343500.0   4980500.0      248.46016
   343600.0   4980500.0      247.44809
   343700.0   4980500.0      246.47569
   343800.0   4980500.0      246.05295
   343900.0   4980500.0      246.76318
   344000.0   4980500.0      248.50621
   344100.0   4980500.0      250.61375
   344200.0   4980500.0      252.52267
   344300.0   4980500.0      253.86641
   344400.0   4980500.0      254.29407
   344500.0   4980500.0      253.93083
   344600.0   4980500.0      253.28252
   344700.0   4980500.0      252.54900
   344800.0   4980500.0      251.76019
   344900.0   4980500.0      251.15501
   345000.0   4980500.0      250.93105
   345100.0   4980500.0      250.99254
   345200.0   4980500.0      251.08691
   345300.0   4980500.0      251.03087
   345400.0   4980500.0      250.91531
   345500.0   4980500.0      251.05292
   345600.0   4980500.0      251.60658
   345700.0   4980500.0      252.43446
   345800.0   4980500.0      253.27541
   345900.0   4980500.0      253.95485
   346000.0   4980500.0      254.40120
   346100.0   4980500.0      254.52689
   346200.0   4980500.0      254.38812
   346300.0   4980500.0      254.27817
   346400.0   4980500.0      254.40805
   346500.0   4980500.0      254.86084
   346600.0   4980500.0      255.68639
   346700.0   4980500.0      256.78491
   346800.0   4980500.0      258.02542
   346900.0   4980500.0      259.35703
   347000.0   4980500.0      260.43964
   347100.0   4980500.0      260.80170
   347200.0   4980500.0      260.25198
   347300.0   4980500.0      258.84274
   347400.0   4980500.0      257.29800
   347500.0   4980500.0      256.59216
   347600.0   4980500.0      256.76382
   347700.0   4980500.0      257.07434
   347800.0   4980500.0      257.18533
   347900.0   4980500.0      257.74634
   348000.0   4980500.0      259.51059
   348100.0   4980500.0      262.34213
   348200.0   4980500.0      265.44321
   348300.0   4980500.0      267.87012
   348400.0   4980500.0      268.56680
   343200.0   4980400.0      248.05458
   343300.0   4980400.0      248.98544
   343400.0   4980400.0      249.35081
   343500.0   4980400.0      249.18282
   343600.0   4980400.0      248.63795
   343700.0   4980400.0      247.67610
   343800.0   4980400.0      247.01463
   343900.0   4980400.0      247.31192
   344000.0   4980400.0      248.43825
   344100.0   4980400.0      249.92760
   344200.0   4980400.0      251.38722
   344300.0   4980400.0      252.43460
   344400.0   4980400.0      252.72293
   344500.0   4980400.0      252.29575
   344600.0   4980400.0      251.60483
   344700.0   4980400.0      251.00150
   344800.0   4980400.0      250.55963
   344900.0   4980400.0      250.39072
   345000.0   4980400.0      250.55771
   345100.0   4980400.0      250.82837
   345200.0   4980400.0      251.08159
   345300.0   4980400.0      251.47841
   345400.0   4980400.0      252.04250
   345500.0   4980400.0      252.72159
   345600.0   4980400.0      253.54375
   345700.0   4980400.0      254.45802
   345800.0   4980400.0      255.31181
   345900.0   4980400.0      255.98328
   346000.0   4980400.0      256.37082
   346100.0   4980400.0      256.24753
   346200.0   4980400.0      255.57417
   346300.0   4980400.0      254.70178
   346400.0   4980400.0      253.97363
   346500.0   4980400.0      253.66248
   346600.0   4980400.0      253.93446
   346700.0   4980400.0      254.59756
   346800.0   4980400.0      255.39987
   346900.0   4980400.0      256.32550
   347000.0   4980400.0      257.25287
   347100.0   4980400.0      257.84619
   347200.0   4980400.0      257.64407
   347300.0   4980400.0      256.32874
   347400.0   4980400.0      254.57936
   347500.0   4980400.0      253.60103
   347600.0   4980400.0      253.71449
   347700.0   4980400.0      254.36223
   347800.0   4980400.0      255.22792
   347900.0   4980400.0      256.77475
   348000.0   4980400.0      259.43939
   348100.0   4980400.0      262.81073
   348200.0   4980400.0      265.88675
   348300.0   4980400.0      267.60605
   348400.0   4980400.0      267.39670
   343200.0   4980300.0      247.38484
   343300.0   4980300.0      248.53566
   343400.0   4980300.0      249.28979
   343500.0   4980300.0      249.51483
   343600.0   4980300.0      249.21837
   343700.0   4980300.0      248.54070
   343800.0   4980300.0      248.08392
   343900.0   4980300.0      248.27245
   344000.0   4980300.0      248.94763
   344100.0   4980300.0      249.72797
   344200.0   4980300.0      250.38751
   344300.0   4980300.0      250.81841
   344400.0   4980300.0      250.85391
   344500.0   4980300.0      250.48840
   344600.0   4980300.0      250.09268
   344700.0   4980300.0      249.94022
   344800.0   4980300.0      249.96400
   344900.0   4980300.0      250.14977
   345000.0   4980300.0      250.53209
   345100.0   4980300.0      251.06560
   345200.0   4980300.0      251.79428
   345300.0   4980300.0      252.77904
   345400.0   4980300.0      253.86746
   345500.0   4980300.0      254.89195
   345600.0   4980300.0      255.88321
   345700.0   4980300.0      256.87845
   345800.0   4980300.0      257.77332
   345900.0   4980300.0      258.44501
   346000.0   4980300.0      258.80411
   346100.0   4980300.0      258.58505
   346200.0   4980300.0      257.58112
   346300.0   4980300.0      256.10773
   346400.0   4980300.0      254.75560
   346500.0   4980300.0      253.93777
   346600.0   4980300.0      253.71388
   346700.0   4980300.0      253.79814
   346800.0   4980300.0      253.90005
   346900.0   4980300.0      254.05141
   347000.0   4980300.0      254.37549
   347100.0   4980300.0      254.73175
   347200.0   4980300.0      254.57603
   347300.0   4980300.0      253.40167
   347400.0   4980300.0      251.69382
   347500.0   4980300.0      250.63080
   347600.0   4980300.0      250.80034
   347700.0   4980300.0      251.93008
   347800.0   4980300.0      253.69553
   347900.0   4980300.0      256.17346
   348000.0   4980300.0      259.34512
   348100.0   4980300.0      262.67230
   348200.0   4980300.0      265.13443
   348300.0   4980300.0      265.62424
   348400.0   4980300.0      264.28799
   343300.0   4980200.0      248.71431
   343400.0   4980200.0      249.31644
   343500.0   4980200.0      249.57690
   343600.0   4980200.0      249.55858
   343700.0   4980200.0      249.45978
   343800.0   4980200.0      249.53439
   343900.0   4980200.0      249.86922
   344000.0   4980200.0      250.26999
   344100.0   4980200.0      250.41711
   344200.0   4980200.0      250.28294
   344300.0   4980200.0      250.00496
   344400.0   4980200.0      249.58420
   344500.0   4980200.0      249.12662
   344600.0   4980200.0      249.02193
   344700.0   4980200.0      249.39822
   344800.0   4980200.0      249.98532
   344900.0   4980200.0      250.56374
   345000.0   4980200.0      251.12004
   345100.0   4980200.0      251.89412
   345200.0   4980200.0      253.07570
   345300.0   4980200.0      254.50349
   345400.0   4980200.0      255.85782
   345500.0   4980200.0      256.99109
   345600.0   4980200.0      257.98248
   345700.0   4980200.0      258.96402
   345800.0   4980200.0      259.91608
   345900.0   4980200.0      260.63251
   346000.0   4980200.0      260.96811
   346100.0   4980200.0      260.67673
   346200.0   4980200.0      259.46890
   346300.0   4980200.0      257.68896
   346400.0   4980200.0      256.10928
   346500.0   4980200.0      255.12814
   346600.0   4980200.0      254.59904
   346700.0   4980200.0      254.14139
   346800.0   4980200.0      253.42079
   346900.0   4980200.0      252.48659
   347000.0   4980200.0      251.81841
   347100.0   4980200.0      251.60518
   347200.0   4980200.0      251.33531
   347300.0   4980200.0      250.37225
   347400.0   4980200.0      248.87297
   347500.0   4980200.0      247.90938
   347600.0   4980200.0      248.33490
   347700.0   4980200.0      250.05170
   347800.0   4980200.0      252.59955
   347900.0   4980200.0      255.61223
   348000.0   4980200.0      258.71045
   348100.0   4980200.0      261.48734
   348200.0   4980200.0      263.28848
   348300.0   4980200.0      263.19577
   348400.0   4980200.0      261.49976
   343300.0   4980100.0      249.27603
   343400.0   4980100.0      249.85669
   343500.0   4980100.0      250.22093
   343600.0   4980100.0      250.55832
   343700.0   4980100.0      251.02046
   343800.0   4980100.0      251.56273
   343900.0   4980100.0      252.02061
   344000.0   4980100.0      252.18346
   344100.0   4980100.0      251.88907
   344200.0   4980100.0      251.24397
   344300.0   4980100.0      250.38239
   344400.0   4980100.0      249.37465
   344500.0   4980100.0      248.56393
   344600.0   4980100.0      248.42412
   344700.0   4980100.0      249.06726
   344800.0   4980100.0      250.19031
   344900.0   4980100.0      251.28993
   345000.0   4980100.0      252.13507
   345100.0   4980100.0      253.09103
   345200.0   4980100.0      254.46240
   345300.0   4980100.0      255.99532
   345400.0   4980100.0      257.28384
   345500.0   4980100.0      258.24222
   345600.0   4980100.0      259.01907
   345700.0   4980100.0      259.85883
   345800.0   4980100.0      260.86673
   345900.0   4980100.0      261.75073
   346000.0   4980100.0      262.21533
   346100.0   4980100.0      261.95239
   346200.0   4980100.0      260.73547
   346300.0   4980100.0      259.01273
   346400.0   4980100.0      257.48264
   346500.0   4980100.0      256.39407
   346600.0   4980100.0      255.54106
   346700.0   4980100.0      254.56174
   346800.0   4980100.0      253.07030
   346900.0   4980100.0      251.10672
   347000.0   4980100.0      249.47409
   347100.0   4980100.0      248.69409
   347200.0   4980100.0      248.32118
   347300.0   4980100.0      247.58170
   347400.0   4980100.0      246.38391
   347500.0   4980100.0      245.75276
   347600.0   4980100.0      246.65564
   347700.0   4980100.0      248.90535
   347800.0   4980100.0      251.78833
   347900.0   4980100.0      254.74524
   348000.0   4980100.0      257.42322
   348100.0   4980100.0      259.70987
   348200.0   4980100.0      261.31329
   348300.0   4980100.0      261.45444
   343300.0   4980000.0      250.42554
   343400.0   4980000.0      251.22592
   343500.0   4980000.0      251.86977
   343600.0   4980000.0      252.48384
   343700.0   4980000.0      253.25198
   343800.0   4980000.0      254.01428
   343900.0   4980000.0      254.44888
   344000.0   4980000.0      254.33836
   344100.0   4980000.0      253.64876
   344200.0   4980000.0      252.66043
   344300.0   4980000.0      251.49281
   344400.0   4980000.0      250.09196
   344500.0   4980000.0      248.87312
   344600.0   4980000.0      248.42160
   344700.0   4980000.0      248.94911
   344800.0   4980000.0      250.20906
   344900.0   4980000.0      251.58356
   345000.0   4980000.0      252.67482
   345100.0   4980000.0      253.77513
   345200.0   4980000.0      255.19725
   345300.0   4980000.0      256.60718
   345400.0   4980000.0      257.54996
   345500.0   4980000.0      258.07416
   345600.0   4980000.0      258.51181
   345700.0   4980000.0      259.19476
   345800.0   4980000.0      260.24857
   345900.0   4980000.0      261.41342
   346000.0   4980000.0      262.30057
   346100.0   4980000.0      262.38861
   346200.0   4980000.0      261.42560
   346300.0   4980000.0      259.95782
   346400.0   4980000.0      258.50497
   346500.0   4980000.0      257.11526
   346600.0   4980000.0      255.71684
   346700.0   4980000.0      254.15727
   346800.0   4980000.0      252.13467
   346900.0   4980000.0      249.65906
   347000.0   4980000.0      247.51805
   347100.0   4980000.0      246.35815
   347200.0   4980000.0      245.85976
   347300.0   4980000.0      245.26794
   347400.0   4980000.0      244.46666
   347500.0   4980000.0      244.40732
   347600.0   4980000.0      245.82776
   347700.0   4980000.0      248.26279
   347800.0   4980000.0      250.94524
   347900.0   4980000.0      253.52518
   348000.0   4980000.0      255.93065
   348100.0   4980000.0      258.12344
   348200.0   4980000.0      259.75208
   348300.0   4980000.0      260.13641
   343300.0   4979900.0      252.17570
   343400.0   4979900.0      253.26225
   343500.0   4979900.0      254.20105
   343600.0   4979900.0      254.91672
   343700.0   4979900.0      255.67068
   343800.0   4979900.0      256.40707
   343900.0   4979900.0      256.71326
   344000.0   4979900.0      256.28302
   344100.0   4979900.0      255.20001
   344200.0   4979900.0      253.94002
   344300.0   4979900.0      252.69058
   344400.0   4979900.0      251.24889
   344500.0   4979900.0      249.81459
   344600.0   4979900.0      249.00699
   344700.0   4979900.0      249.19609
   344800.0   4979900.0      250.15799
   344900.0   4979900.0      251.31592
   345000.0   4979900.0      252.35760
   345100.0   4979900.0      253.48221
   345200.0   4979900.0      254.86288
   345300.0   4979900.0      256.09042
   345400.0   4979900.0      256.67923
   345500.0   4979900.0      256.80872
   345600.0   4979900.0      256.98398
   345700.0   4979900.0      257.57330
   345800.0   4979900.0      258.66623
   345900.0   4979900.0      260.03802
   346000.0   4979900.0      261.31845
   346100.0   4979900.0      261.89731
   346200.0   4979900.0      261.44263
   346300.0   4979900.0      260.34979
   346400.0   4979900.0      258.88947
   346500.0   4979900.0      257.10294
   346600.0   4979900.0      255.16939
   346700.0   4979900.0      253.16696
   346800.0   4979900.0      250.97496
   346900.0   4979900.0      248.59802
   347000.0   4979900.0      246.51999
   347100.0   4979900.0      245.19408
   347200.0   4979900.0      244.45363
   347300.0   4979900.0      243.81888
   347400.0   4979900.0      243.32242
   347500.0   4979900.0      243.71825
   347600.0   4979900.0      245.34378
   347700.0   4979900.0      247.56602
   347800.0   4979900.0      249.82584
   347900.0   4979900.0      252.12991
   348000.0   4979900.0      254.52586
   348100.0   4979900.0      256.73846
   348200.0   4979900.0      258.15845
   348300.0   4979900.0      258.37625
   343300.0   4979800.0      254.41260
   343400.0   4979800.0      255.70326
   343500.0   4979800.0      256.75748
   343600.0   4979800.0      257.25787
   343700.0   4979800.0      257.62091
   343800.0   4979800.0      258.05609
   343900.0   4979800.0      258.15396
   344000.0   4979800.0      257.50574
   344100.0   4979800.0      256.28708
   344200.0   4979800.0      255.05228
   344300.0   4979800.0      253.91873
   344400.0   4979800.0      252.55832
   344500.0   4979800.0      251.04309
   344600.0   4979800.0      250.00764
   344700.0   4979800.0      249.89714
   344800.0   4979800.0      250.47569
   344900.0   4979800.0      251.19972
   345000.0   4979800.0      251.88095
   345100.0   4979800.0      252.73293
   345200.0   4979800.0      253.82645
   345300.0   4979800.0      254.80035
   345400.0   4979800.0      255.24438
   345500.0   4979800.0      255.26692
   345600.0   4979800.0      255.37247
   345700.0   4979800.0      255.92848
   345800.0   4979800.0      256.95062
   345900.0   4979800.0      258.22827
   346000.0   4979800.0      259.48935
   346100.0   4979800.0      260.32898
   346200.0   4979800.0      260.44513
   346300.0   4979800.0      259.80533
   346400.0   4979800.0      258.39166
   346500.0   4979800.0      256.43427
   346600.0   4979800.0      254.34686
   346700.0   4979800.0      252.32379
   346800.0   4979800.0      250.38173
   346900.0   4979800.0      248.52296
   347000.0   4979800.0      246.89194
   347100.0   4979800.0      245.60327
   347200.0   4979800.0      244.55997
   347300.0   4979800.0      243.64514
   347400.0   4979800.0      243.06004
   347500.0   4979800.0      243.31499
   347600.0   4979800.0      244.58273
   347700.0   4979800.0      246.39258
   347800.0   4979800.0      248.35347
   347900.0   4979800.0      250.54674
   348000.0   4979800.0      252.87897
   348100.0   4979800.0      254.81924
   348200.0   4979800.0      255.85065
   343400.0   4979700.0      258.12967
   343500.0   4979700.0      258.98526
   343600.0   4979700.0      259.03909
   343700.0   4979700.0      258.83655
   343800.0   4979700.0      258.79541
   343900.0   4979700.0      258.60983
   344000.0   4979700.0      257.94824
   344100.0   4979700.0      256.96814
   344200.0   4979700.0      256.02127
   344300.0   4979700.0      255.04585
   344400.0   4979700.0      253.75128
   344500.0   4979700.0      252.30077
   344600.0   4979700.0      251.29034
   344700.0   4979700.0      251.09360
   344800.0   4979700.0      251.42203
   344900.0   4979700.0      251.74834
   345000.0   4979700.0      251.98167
   345100.0   4979700.0      252.34184
   345200.0   4979700.0      252.89832
   345300.0   4979700.0      253.48773
   345400.0   4979700.0      253.85161
   345500.0   4979700.0      253.98184
   345600.0   4979700.0      254.23593
   345700.0   4979700.0      254.81253
   345800.0   4979700.0      255.56551
   345900.0   4979700.0      256.37610
   346000.0   4979700.0      257.23376
   346100.0   4979700.0      258.00220
   346200.0   4979700.0      258.40161
   346300.0   4979700.0      258.11148
   346400.0   4979700.0      256.99515
   346500.0   4979700.0      255.34880
   346600.0   4979700.0      253.61150
   346700.0   4979700.0      252.05298
   346800.0   4979700.0      250.73219
   346900.0   4979700.0      249.54959
   347000.0   4979700.0      248.42792
   347100.0   4979700.0      247.28906
   347200.0   4979700.0      246.01840
   347300.0   4979700.0      244.68300
   347400.0   4979700.0      243.60530
   347500.0   4979700.0      243.15729
   347600.0   4979700.0      243.56683
   347700.0   4979700.0      244.77809
   347800.0   4979700.0      246.52295
   347900.0   4979700.0      248.57179
   348000.0   4979700.0      250.54987
   348100.0   4979700.0      251.97046
   348200.0   4979700.0      252.75775
   343400.0   4979600.0      259.92618
   343500.0   4979600.0      260.39609
   343600.0   4979600.0      260.13818
   343700.0   4979600.0      259.65411
   343800.0   4979600.0      259.28525
   343900.0   4979600.0      258.82547
   344000.0   4979600.0      258.16617
   344100.0   4979600.0      257.41476
   344200.0   4979600.0      256.62018
   344300.0   4979600.0      255.68930
   344400.0   4979600.0      254.54428
   344500.0   4979600.0      253.37453
   344600.0   4979600.0      252.59564
   344700.0   4979600.0      252.43651
   344800.0   4979600.0      252.60600
   344900.0   4979600.0      252.71886
   345000.0   4979600.0      252.71790
   345100.0   4979600.0      252.66275
   345200.0   4979600.0      252.65166
   345300.0   4979600.0      252.74359
   345400.0   4979600.0      252.89232
   345500.0   4979600.0      253.12773
   345600.0   4979600.0      253.57094
   345700.0   4979600.0      254.13295
   345800.0   4979600.0      254.52202
   345900.0   4979600.0      254.73270
   346000.0   4979600.0      255.02805
   346100.0   4979600.0      255.45374
   346200.0   4979600.0      255.76010
   346300.0   4979600.0      255.64104
   346400.0   4979600.0      255.01762
   346500.0   4979600.0      254.11835
   346600.0   4979600.0      253.18188
   346700.0   4979600.0      252.34933
   346800.0   4979600.0      251.71965
   346900.0   4979600.0      251.19164
   347000.0   4979600.0      250.52521
   347100.0   4979600.0      249.53400
   347200.0   4979600.0      248.11327
   347300.0   4979600.0      246.36798
   347400.0   4979600.0      244.62950
   347500.0   4979600.0      243.25194
   347600.0   4979600.0      242.63850
   347700.0   4979600.0      243.10057
   347800.0   4979600.0      244.43921
   347900.0   4979600.0      246.14247
   348000.0   4979600.0      247.66745
   348100.0   4979600.0      248.72667
   343400.0   4979500.0      260.86743
   343500.0   4979500.0      261.02737
   343600.0   4979500.0      260.72269
   343700.0   4979500.0      260.30585
   343800.0   4979500.0      259.91000
   343900.0   4979500.0      259.36597
   344000.0   4979500.0      258.66949
   344100.0   4979500.0      257.87036
   344200.0   4979500.0      256.97595
   344300.0   4979500.0      256.03235
   344400.0   4979500.0      255.07886
   344500.0   4979500.0      254.17473
   344600.0   4979500.0      253.51146
   344700.0   4979500.0      253.25945
   344800.0   4979500.0      253.32443
   344900.0   4979500.0      253.49150
   345000.0   4979500.0      253.50948
   345100.0   4979500.0      253.26987
   345200.0   4979500.0      252.92204
   345300.0   4979500.0      252.60797
   345400.0   4979500.0      252.48308
   345500.0   4979500.0      252.68671
   345600.0   4979500.0      253.12344
   345700.0   4979500.0      253.50497
   345800.0   4979500.0      253.56210
   345900.0   4979500.0      253.33253
   346000.0   4979500.0      253.11346
   346100.0   4979500.0      253.05215
   346200.0   4979500.0      253.06300
   346300.0   4979500.0      252.99542
   346400.0   4979500.0      252.80869
   346500.0   4979500.0      252.69519
   346600.0   4979500.0      252.70877
   346700.0   4979500.0      252.68663
   346800.0   4979500.0      252.73552
   346900.0   4979500.0      252.87741
   347000.0   4979500.0      252.68866
   347100.0   4979500.0      251.81535
   347200.0   4979500.0      250.20448
   347300.0   4979500.0      248.01443
   347400.0   4979500.0      245.58241
   347500.0   4979500.0      243.36945
   347600.0   4979500.0      241.94415
   347700.0   4979500.0      241.64474
   347800.0   4979500.0      242.28084
   347900.0   4979500.0      243.43231
   348000.0   4979500.0      244.65376
   343400.0   4979400.0      261.23550
   343500.0   4979400.0      261.24695
   343600.0   4979400.0      261.03564
   343700.0   4979400.0      260.77811
   343800.0   4979400.0      260.52524
   343900.0   4979400.0      260.15726
   344000.0   4979400.0      259.57092
   344100.0   4979400.0      258.70874
   344200.0   4979400.0      257.67795
   344300.0   4979400.0      256.64539
   344400.0   4979400.0      255.67941
   344500.0   4979400.0      254.75241
   344600.0   4979400.0      253.90488
   344700.0   4979400.0      253.42247
   344800.0   4979400.0      253.48409
   344900.0   4979400.0      253.76360
   345000.0   4979400.0      253.78941
   345100.0   4979400.0      253.51579
   345200.0   4979400.0      253.11349
   345300.0   4979400.0      252.66335
   345400.0   4979400.0      252.36456
   345500.0   4979400.0      252.42451
   345600.0   4979400.0      252.66933
   345700.0   4979400.0      252.75423
   345800.0   4979400.0      252.50035
   345900.0   4979400.0      251.95215
   346000.0   4979400.0      251.34314
   346100.0   4979400.0      250.86792
   346200.0   4979400.0      250.62633
   346300.0   4979400.0      250.58891
   346400.0   4979400.0      250.68929
   346500.0   4979400.0      251.07669
   346600.0   4979400.0      251.80338
   346700.0   4979400.0      252.68132
   346800.0   4979400.0      253.62303
   346900.0   4979400.0      254.46649
   347000.0   4979400.0      254.70258
   347100.0   4979400.0      253.83905
   347200.0   4979400.0      251.82407
   347300.0   4979400.0      249.04071
   347400.0   4979400.0      246.09715
   347500.0   4979400.0      243.54266
   347600.0   4979400.0      241.70244
   347700.0   4979400.0      240.64259
   347800.0   4979400.0      240.28735
   347900.0   4979400.0      240.65605
   343500.0   4979300.0      261.44150
   343600.0   4979300.0      261.38870
   343700.0   4979300.0      261.32382
   343800.0   4979300.0      261.20648
   343900.0   4979300.0      261.01089
   344000.0   4979300.0      260.62817
   344100.0   4979300.0      259.92728
   344200.0   4979300.0      258.93420
   344300.0   4979300.0      257.74478
   344400.0   4979300.0      256.46326
   344500.0   4979300.0      255.21744
   344600.0   4979300.0      254.15492
